ply
format ascii 1.0
comment PCL generated
element vertex 670
property float x
property float y
property float z
property float nx
property float ny
property float nz
property float curvature
element camera 0
property float view_px
property float view_py
property float view_pz
property float x_axisx
property float x_axisy
property float x_axisz
property float y_axisx
property float y_axisy
property float y_axisz
property float z_axisx
property float z_axisy
property float z_axisz
property float focal
property float scalex
property float scaley
property float centerx
property float centery
property int viewportx
property int viewporty
property float k1
property float k2
end_header
-2.6440573 1.7497394 -0.45149034 -0.77899599 0.025629196 0.62650496 0
-2.5992301 1.792161 -0.40966049 -0.75610882 0.031594705 0.65368295 0
-0.2320693 1.7509972 -0.43624887 0.77208918 0.026092453 0.63497829 0
-0.18791421 1.7474139 -0.48468426 0.79565042 0.025871404 0.60520333 0
-2.6399086 1.8508508 -0.45434332 -0.77850938 0.039754484 0.62637264 0
-2.5964715 1.848709 -0.41079283 -0.75551975 0.039594054 0.6539284 0
-0.23554333 1.8522985 -0.43867499 0.77157122 0.04010864 0.6348772 0
-0.19081336 1.8467963 -0.48355579 0.79445511 0.039564736 0.60603279 0
-2.6354086 1.9501722 -0.45515013 -0.77616709 0.073080443 0.6262778 0
-2.5932779 1.9514034 -0.41704169 -0.75495803 0.07468652 0.65150619 0
-0.23619397 1.9508946 -0.44477466 0.77167541 0.072504491 0.63187039 0
-0.19104414 1.9525983 -0.49434343 0.79598939 0.073096342 0.6008808 0
-2.6321681 2.0489159 -0.45744357 -0.76950532 0.13786398 0.62358248 0
-2.5889752 2.0555158 -0.41176203 -0.74537486 0.14342123 0.65103507 0
-0.2430338 2.0482428 -0.44559488 0.76431531 0.13987027 0.62949067 0
-0.19106439 2.0459542 -0.49557087 0.79100293 0.13711403 0.59625006 0
-2.6265929 2.1519084 -0.4617562 -0.76162153 0.19417451 0.61824673 0
-2.5721869 2.175905 -0.42907751 -0.73390651 0.22142093 0.64214796 0
-2.4971299 2.1999531 -0.4027113 -0.69679642 0.2554017 0.67025733 0
-0.24663234 2.148524 -0.44886908 0.75779843 0.1929777 0.6232987 0
-0.19615382 2.1333811 -0.48614678 0.78096586 0.1820415 0.59745562 0
-2.6206329 2.2090597 -0.48426804 -0.75670171 0.24818994 0.60481751 0
-2.549469 2.2583878 -0.44837877 -0.71674871 0.30557412 0.62681401 0
-0.3267968 2.251205 -0.43734944 0.70840967 0.31601304 0.63110346 0
-0.27540001 2.2304196 -0.46741849 0.7388013 0.28230783 0.61194354 0
-2.6016171 2.386492 -0.49652082 -0.72706473 0.37148759 0.57738543 0
-2.5413115 2.3504548 -0.45063466 -0.6942358 0.38404486 0.60872507 0
-2.4900005 2.31549 -0.41091543 -0.67176026 0.37185958 0.64067048 0
-0.33365205 2.3435686 -0.44232339 0.68128014 0.41145688 0.60544235 0
-0.28659582 2.3655798 -0.48176485 0.70075846 0.42294735 0.57450259 0
-2.5318365 2.4173744 -0.45953143 -0.73028839 0.26310757 0.63043898 0
-2.4559431 2.4368124 -0.44205439 -0.69704264 0.26806498 0.66503578 0
-2.3658452 2.4413328 -0.43008327 -0.60144031 0.45168948 0.65897357 0
-2.2503312 2.4425423 -0.43357217 -0.40805012 0.73745632 0.53819454 0
-2.1500151 2.4425688 -0.43349496 -0.27174443 0.84914076 0.45289609 0
-2.0428381 2.4562075 -0.45624509 -0.0063986233 0.99443054 0.10520006 0
-1.955521 2.4654999 -0.43167642 0.012611982 0.99990433 -0.0056679607 0
-1.8836 2.4652998 -0.40849698 -0.00091346452 0.99971449 -0.023877908 0
-1.0196555 2.4690673 -0.40578982 -0.012793401 0.99991816 0.00012074038 0
-0.95142788 2.4647937 -0.42828053 -0.0083204005 0.99995971 0.0033571487 0
-0.86313123 2.4575498 -0.45279002 0.046952922 0.99669433 0.066300876 0
-0.75413162 2.4428809 -0.43257436 0.24565254 0.8987053 0.3632955 0
-0.6538372 2.4429009 -0.43251455 0.35484195 0.81651902 0.45539421 0
-0.54083294 2.4419484 -0.4328036 0.49214777 0.67944795 0.54418844 0
-0.452447 2.4412644 -0.44535288 0.64292681 0.43473628 0.63059461 0
-0.35245794 2.4249055 -0.4517414 0.71626395 0.29604492 0.6319204 0
-0.29226601 2.4057519 -0.48477891 0.72191226 0.36764064 0.58624476 0
-2.0251303 2.5489767 -0.48075828 0.068376713 0.9966222 0.04548429 0
-1.9510018 2.5487211 -0.44348618 0.051409848 0.99776429 0.04270326 0
-1.8728632 2.5606658 -0.41276056 0.0050038588 0.99693125 0.078122675 0
-1.0180488 2.5285437 -0.40663734 -0.016119847 0.99828809 0.056221996 0
-0.95212299 2.5450153 -0.4265649 -0.010494246 0.99684089 0.078728788 0
-0.85906404 2.5486829 -0.47003064 0.024266483 0.99593198 0.086779311 0
-2.5280831 2.6862581 -0.46424291 -0.74187773 -0.14530337 0.65460247 0
-2.452884 2.6833136 -0.43934828 -0.69897062 -0.18793482 0.69001496 0
-2.3468337 2.6836927 -0.44929144 0.51881409 0.63631088 -0.57091188 0
-2.2488415 2.683754 -0.44743699 0.40285254 0.78623074 -0.46856284 0
-2.157299 2.6834366 -0.45078728 0.29512674 0.89618814 -0.3312811 0
-2.0458217 2.6577287 -0.45970973 0.058588613 0.9974435 0.040914021 0
-1.9545355 2.6425443 -0.43379566 0.010176397 0.98860741 0.15017246 0
-1.8720235 2.6273255 -0.41036937 -0.020520905 0.98375833 0.17832099 0
-0.93280411 2.6435156 -0.41454062 0.01669254 0.9872328 0.15840732 0
-0.844482 2.6506479 -0.44256335 -0.0059195585 0.99866265 0.051360596 0
-0.75688148 2.6765516 -0.45266557 -0.15445541 0.96561402 -0.20912454 0
-0.65162933 2.6847093 -0.45107335 -0.35155743 0.80263048 -0.48186263 0
-0.55426162 2.6848567 -0.45198762 -0.48684114 0.63680631 -0.59788251 0
-0.45111048 2.684859 -0.44376764 -0.65783685 0.31045407 -0.68619895 0
-0.34837839 2.689373 -0.44733924 -0.72684354 0.14242189 -0.67187387 0
-0.29474157 2.693275 -0.49307311 -0.75838131 0.13309737 -0.63807756 0
-2.5381589 2.7476234 -0.45829502 -0.74559218 -0.071090877 0.66259974 0
-2.493963 2.7481086 -0.40718609 -0.71406877 -0.06305486 0.69723016 0
-0.33695406 2.751581 -0.44425777 0.66294789 0.42351216 0.61736339 0
-0.29470444 2.7502019 -0.4933663 0.60771173 0.6067934 0.51233608 0
-2.5382168 2.8477855 -0.45915341 -0.72087973 0.26608661 0.63994563 0
-2.4949822 2.8510568 -0.40843737 -0.69092274 0.26910862 0.67097414 0
-0.3366974 2.8500159 -0.44459027 0.70214093 0.30998212 0.64102197 0
-0.29404432 2.848 -0.49404836 0.73024857 0.31029606 0.60864872 0
-2.5333486 2.9458134 -0.46245021 -0.6322968 0.53652185 0.55887842 0
-2.4829013 2.9702859 -0.42151895 -0.55852747 0.63348037 0.5354901 0
-0.41345891 2.992837 -0.40992731 0.47618562 0.74363643 0.46931031 0
-0.3458952 2.9538531 -0.44784653 0.60026991 0.58724409 0.5429737 0
-0.2947962 2.9288492 -0.49461949 0.66411638 0.50610626 0.55027807 0
-2.5155721 3.0035655 -0.49072632 -0.48102918 0.77196002 0.41555822 0
-2.4415288 3.0077283 -0.45583761 -0.39531332 0.83681118 0.37878028 0
-2.3478642 3.0103219 -0.45090485 -0.25805968 0.92584658 0.27606741 0
-2.2519736 3.0103993 -0.45008096 -0.1421978 0.97430927 0.17464618 0
-2.151005 3.0103528 -0.44959667 -0.05341132 0.99574947 0.075035185 0
-2.046932 3.0104227 -0.44895443 0.013996275 0.99973983 -0.018013394 0
-1.9467694 3.0104756 -0.44891769 0.046568122 0.99523723 -0.085640192 0
-1.8486496 3.0105114 -0.44985449 0.062356573 0.9872964 -0.1461419 0
-1.7474774 3.0105298 -0.44935861 0.063399628 0.97737879 -0.2017702 0
-1.6454369 3.0105894 -0.44933388 0.050593656 0.9682107 -0.24496612 0
-1.5471053 3.0106223 -0.44898075 0.02945045 0.96254426 -0.26952037 0
-1.4507722 3.0105834 -0.44877788 0.0057231076 0.95980692 -0.28060293 0
-1.3487551 3.0106239 -0.44855186 -0.020401524 0.96126842 -0.2748577 0
-1.2508204 3.0107083 -0.44834876 -0.043574523 0.96659356 -0.25258291 0
-1.1524451 3.0106702 -0.44813702 -0.058830515 0.97473961 -0.21545702 0
-1.0488824 3.0107088 -0.44730395 -0.06040353 0.98510599 -0.1609897 0
-0.94749993 3.0107205 -0.45136335 -0.051210575 0.99301982 -0.10625094 0
-0.84778798 3.0107872 -0.45179129 -0.025390163 0.99867469 -0.044768311 0
-0.75370121 3.0107825 -0.45145249 0.024959495 0.99913895 0.033141825 0
-0.65506607 3.0108054 -0.45147583 0.1001075 0.98670429 0.12803535 0
-0.55646414 3.0108273 -0.4514876 0.20199537 0.95287395 0.22633854 0
-0.45485494 3.0096784 -0.4489634 0.34579143 0.87373871 0.34206584 0
-0.37846836 3.0050638 -0.47564742 0.44102773 0.80503553 0.39675209 0
-1.4348304 -3.0020781 -0.35035315 -0.0013915959 -0.99999899 -2.5541083e-05 0
-1.9316406 -2.9137764 -0.34580699 -0.32317874 -0.94633788 -0.00026566026 0
-1.8548102 -2.942718 -0.34963563 -0.26886523 -0.9631778 -9.427491e-05 0
-1.7511115 -2.9621568 -0.34779659 -0.19738789 -0.98032546 -0.00016532156 0
-1.6464138 -2.9758284 -0.34914711 -0.13539125 -0.99079216 -0.00025638274 0
-1.5452042 -2.9890394 -0.34931561 -0.076748356 -0.99705046 -0.00011716295 0
-1.4635704 -2.9977643 -0.34250358 -0.022482065 -0.99974722 -5.8907215e-05 0
-1.3488954 -2.9928224 -0.35187757 0.059063472 -0.99825418 -1.8826611e-05 0
-1.2477477 -2.9794374 -0.34951061 0.11953272 -0.99283028 0.00010961563 0
-1.1491791 -2.9664216 -0.35133919 0.1760405 -0.98438293 0.00022976665 0
-1.0513741 -2.952415 -0.35256657 0.23988436 -0.97080147 0.000287487 0
-0.95146954 -2.9202318 -0.3530086 0.31157026 -0.95022303 0.00043018252 0
-2.2093761 -2.8005381 -0.35236287 -0.49092874 -0.87119961 -0.00041484187 0
-2.149652 -2.8227308 -0.34937736 -0.45284319 -0.89159006 -0.00039451494 0
-2.049226 -2.8645518 -0.34827608 -0.3926115 -0.91970432 -0.00039811997 0
-1.9776676 -2.8933055 -0.34569904 -0.35150573 -0.93618566 -0.00030061399 0
-0.91094261 -2.8951724 -0.34922019 0.33887574 -0.94083107 0.00055426022 0
-0.84771401 -2.8763812 -0.35173753 0.37476948 -0.92711794 0.00032822607 0
-0.75018787 -2.8361433 -0.35323346 0.42891997 -0.90334022 0.0020618879 0
-0.6815213 -2.8086751 -0.35482404 0.46311045 -0.88620645 0.012918083 0
-2.3236606 -2.716877 -0.34538344 -0.57246083 -0.81993186 -0.0005390927 0
-2.2583833 -2.7645056 -0.3498764 -0.52834815 -0.84902769 -0.00050079101 0
-2.1945517 -2.7958763 -0.35751846 -0.48462525 -0.87472165 -0.00068211462 0
-0.63230562 -2.7807491 -0.35132575 0.48333755 -0.87475663 0.034433063 0
-0.56318122 -2.7305169 -0.3535614 0.49326366 -0.8652246 0.089873575 0
-2.4367414 -2.6292748 -0.34704334 -0.63762385 -0.77034765 -0.00046972782 0
-2.3683884 -2.6791544 -0.34528506 -0.59929204 -0.80053031 -0.00048132802 0
-0.51471812 -2.6895061 -0.35568625 0.48458964 -0.86317819 0.14176098 0
-0.44784307 -2.6403661 -0.35223064 0.44945174 -0.86474341 0.22408018 0
-0.35052866 -2.60498 -0.3905232 0.29463696 -0.86195987 0.41257033 0
-0.25012761 -2.6059158 -0.39210412 0.16250309 -0.82737887 0.53762144 0
-0.15862395 -2.6036501 -0.38986182 0.0663343 -0.78743994 0.61281163 0
-0.053954072 -2.6029258 -0.38993552 0.0060494603 -0.75836134 0.65180635 0
0.049413163 -2.6029058 -0.39010251 -0.00068320485 -0.75489551 0.65584469 0
0.15440112 -2.603874 -0.39083105 -0.00042980729 -0.75508332 0.65562874 0
0.25399867 -2.6039689 -0.39111358 -0.00042902178 -0.7544179 0.6563943 0
0.34750736 -2.6039321 -0.39151585 -0.00073432969 -0.75407267 0.65679055 0
0.44707617 -2.6046121 -0.39242885 -0.00052840338 -0.75466847 0.65610617 0
0.54718041 -2.6048827 -0.39264959 -0.0006738159 -0.75485796 0.6558879 0
0.64837307 -2.6061075 -0.39330909 -0.00045620574 -0.75569516 0.65492338 0
0.75185245 -2.6045229 -0.39061782 -0.00054901937 -0.75422919 0.65661103 0
0.84992981 -2.6052561 -0.39102644 -0.0004895365 -0.75449783 0.65630233 0
0.95173806 -2.6050806 -0.39081895 -0.00053392991 -0.75447011 0.65633416 0
1.051168 -2.6065319 -0.39273956 -0.00055622414 -0.75568259 0.6549378 0
1.1492256 -2.6031573 -0.38954538 -0.00050571444 -0.75357211 0.65736502 0
1.2500638 -2.60305 -0.39006349 -0.00070405129 -0.75341511 0.65754485 0
1.3521659 -2.6037984 -0.391065 -0.00076450763 -0.75388348 0.65700781 0
1.4533066 -2.6034942 -0.39123324 -0.00034298757 -0.75390637 0.65698183 0
1.5456591 -2.6048338 -0.39192924 0.0022425379 -0.75454557 0.65624386 0
1.6429943 -2.6049006 -0.39249441 0.011341842 -0.75468737 0.65598655 0
1.7415277 -2.6065247 -0.39318791 0.024847794 -0.75521368 0.65500754 0
1.850145 -2.6045072 -0.39508241 0.039705198 -0.75437546 0.65524137 0
1.9169685 -2.6011696 -0.39562085 0.053175908 -0.75352448 0.65526569 0
-2.5435698 -2.5429385 -0.34651208 -0.70543504 -0.70877445 -0.00044298967 0
-2.4854341 -2.5884776 -0.3497692 -0.66718203 -0.7448945 -0.00050843076 0
-0.40765515 -2.5982785 -0.32523236 0.45316058 -0.85594523 0.24900435 0
-0.34248364 -2.5720921 -0.34590763 0.3575328 -0.85349339 0.37910324 0
-0.24719693 -2.5595169 -0.34344724 0.23668289 -0.82232338 0.51746053 0
-0.15032922 -2.5584235 -0.34066597 0.11617866 -0.77677751 0.6189661 0
-0.051832914 -2.5583668 -0.34074762 0.028728854 -0.73738873 0.67485738 0
0.050007548 -2.5583115 -0.34075612 -0.00030829856 -0.72418046 0.68961036 0
0.15035786 -2.5608239 -0.3425912 -0.00051566045 -0.7251451 0.68859595 0
0.25173181 -2.5598395 -0.3413955 -0.00047031583 -0.7239064 0.68989807 0
0.35035014 -2.5607998 -0.34244049 -0.00058445893 -0.72411114 0.68968296 0
0.44970006 -2.5603673 -0.34194538 -0.00070339994 -0.72355145 0.69027013 0
0.55080056 -2.560039 -0.34152326 -0.00059576024 -0.72333807 0.69049394 0
0.65196538 -2.5601923 -0.34267643 -0.00060326862 -0.72389281 0.6899122 0
0.7499547 -2.5601089 -0.34258834 -0.0005899457 -0.72381401 0.68999481 0
0.84867162 -2.5581553 -0.3400211 -0.00063469971 -0.72224891 0.69163299 0
0.95000082 -2.557801 -0.33962306 -0.00061820226 -0.72195399 0.69194078 0
1.0501769 -2.5594547 -0.3416256 -0.0006575752 -0.72329718 0.69053656 0
1.1498984 -2.5580435 -0.3399702 -0.00057359168 -0.72236216 0.69151467 0
1.2494181 -2.5618324 -0.34332731 -0.00065901055 -0.72479284 0.68896645 0
1.3489809 -2.5613179 -0.3424325 -0.00069030328 -0.72426599 0.68952036 0
1.4508673 -2.561429 -0.34276947 -0.00053157937 -0.7242341 0.68955398 0
1.5527049 -2.5608361 -0.34187791 0.0028356335 -0.72372574 0.69008183 0
1.6504452 -2.5607009 -0.34090558 0.012389145 -0.72333443 0.69038665 0
1.7498198 -2.5620823 -0.34397668 0.026137508 -0.72480309 0.68845999 0
1.8497446 -2.5581851 -0.34586281 0.039697696 -0.72376949 0.68889898 0
1.9517843 -2.5519185 -0.34672168 0.073717698 -0.72019172 0.68984759 0
2.0491312 -2.5488932 -0.35059565 0.13806011 -0.71512157 0.68523026 0
2.1496568 -2.5429497 -0.35391396 0.19316104 -0.70760614 0.67969286 0
2.2353945 -2.5204782 -0.38423476 0.27783984 -0.69428933 0.66390318 0
2.3595717 -2.5082846 -0.39102221 0.38480577 -0.66367441 0.64145213 0
-2.6291635 -2.4373055 -0.35052782 -0.76731902 -0.64126521 -0.0006557118 0
-2.5876038 -2.4880288 -0.3491081 -0.74071801 -0.67181581 -0.0004699612 0
0.15573722 -2.499259 -0.30046725 -0.00048971502 -0.68666226 0.72697645 0
1.2505882 -2.4987159 -0.30091617 -0.0006478696 -0.68633908 0.72728145 0
1.876454 -2.4984031 -0.31001639 0.043014593 -0.68868643 0.72378224 0
1.9464961 -2.4918635 -0.30652311 0.072362848 -0.68308634 0.72674382 0
2.0629661 -2.4819167 -0.30523229 0.14830083 -0.6737259 0.7239477 0
2.1699653 -2.4721575 -0.31635574 0.2153438 -0.66582268 0.71435785 0
2.2508907 -2.4570553 -0.34242985 0.30283007 -0.65290558 0.69426805 0
2.3523777 -2.4536915 -0.3508133 0.38524127 -0.63167208 0.67274034 0
2.4209177 -2.4431088 -0.36644435 0.26643348 -0.65696204 0.70527595 0
2.6806099 -2.4443824 -0.36219347 -0.1462402 -0.68816417 0.71066433 0
2.7520995 -2.449729 -0.35568589 -0.069780946 -0.69265181 0.71788865 0
2.8508236 -2.4500079 -0.35575938 0.24184041 -0.6708566 0.70104545 0
2.947365 -2.4450285 -0.36179838 0.53675163 -0.58125079 0.61159235 0
3.0059478 -2.4179809 -0.38561225 0.77400786 -0.43420127 0.4608483 0
-2.7189844 -2.3205669 -0.35147199 -0.81833041 -0.57474768 -0.00052655273 0
-2.6787784 -2.3710625 -0.35183358 -0.79631001 -0.60488838 -0.00065504404 0
2.292778 -2.3834789 -0.30784997 0.36696464 -0.60035586 0.71057004 0
2.340184 -2.3816855 -0.31056407 0.39630982 -0.59085941 0.70272589 0
2.4311817 -2.3555791 -0.34702143 0.31476858 -0.60872185 0.72827083 0
2.6703649 -2.3601196 -0.34392163 -0.20416611 -0.64418268 0.73711926 0
2.7489479 -2.3862813 -0.3110145 -0.068997957 -0.65524155 0.75226182 0
2.8506134 -2.3870206 -0.31025252 0.26440391 -0.63107634 0.72926891 0
2.9687035 -2.3692753 -0.32451949 0.65521801 -0.48987272 0.57507747 0
3.0080202 -2.3440104 -0.36130956 0.83567673 -0.35591313 0.4182944 0
-2.8063133 -2.2069268 -0.35270354 -0.87094897 -0.49137321 -0.00060456945 0
-2.7687931 -2.2546551 -0.34855205 -0.8484965 -0.52920067 -0.00057735143 0
2.4370952 -2.2491567 -0.34356588 0.52853012 -0.50956154 0.67897189 0
2.6664236 -2.2561834 -0.35025689 0.56513417 0.5024752 -0.65432572 0
2.9986377 -2.2866096 -0.30861431 0.81383717 -0.35179555 0.46250302 0
3.0079541 -2.2492185 -0.34971654 0.9082557 -0.25288117 0.33335075 0
-2.8277533 -2.1461887 -0.35018995 -0.89163113 -0.45276204 -0.00062125642 0
-2.7968073 -2.195174 -0.35246056 -0.87290466 -0.48789069 -0.00056358671 0
2.4407079 -2.1487758 -0.34414119 0.72215784 -0.39846244 0.56543416 0
2.6631789 -2.1526978 -0.34123573 0.66773289 0.42721769 -0.60960472 0
3.0079315 -2.1472859 -0.34693325 0.96028936 -0.15660557 0.23090905 0
-2.8671179 -2.0498242 -0.3508566 -0.91870356 -0.39494726 -0.00064217712 0
2.4421749 -2.0443134 -0.34602028 0.81850666 -0.3145107 0.48075986 0
2.6607172 -2.0462306 -0.34972957 0.84168011 0.26374021 -0.47118542 0
3.0077887 -2.0516911 -0.34967574 0.98782444 -0.07797341 0.13462186 0
-2.9147315 -1.9393271 -0.34928489 -0.94438338 -0.32884565 -0.00068067422 0
-2.8924398 -1.9799123 -0.35171148 -0.93517375 -0.35418874 -0.00064932305 0
2.4421964 -1.9437299 -0.35087371 0.92442733 -0.21376655 0.31581333 0
2.6570101 -1.9401948 -0.3584277 0.98442018 0.050530165 -0.16841483 0
3.007504 -1.9522022 -0.34969264 0.99870729 -0.020110087 0.04668276 0
-2.9478595 -1.8489213 -0.35093772 -0.96409702 -0.26554924 -0.00074931333 0
2.442219 -1.8707069 -0.33500615 0.95575607 -0.17174236 0.23881997 0
2.5648727 -1.8264139 -0.38794646 0.99268001 -0.10491461 0.059827358 0
2.6396508 -1.849708 -0.36206502 0.99550742 -0.062863305 0.070804447 0
3.0079007 -1.8512627 -0.34901819 0.99971485 0.0092435228 -0.022018079 0
-2.966296 -1.7482691 -0.34964737 -0.98062849 -0.19587502 -0.00081748737 0
2.5559309 -1.7562003 -0.35861918 0.99243397 -0.09707541 0.075173646 0
2.6311185 -1.7509669 -0.33509576 0.98878276 -0.075473972 0.12888816 0
3.0080016 -1.7495986 -0.34776667 0.99777555 0.018610042 -0.064012267 0
-2.9789639 -1.6511744 -0.35074717 -0.99025553 -0.13925995 -0.0007776749 0
2.5591002 -1.651516 -0.33509359 0.99487144 -0.074392915 0.068530545 0
2.6263065 -1.6545408 -0.31982273 0.98729146 -0.06377916 0.14556029 0
3.0072224 -1.6483942 -0.34875304 0.99556816 0.01848902 -0.092207462 0
-3.0027905 -1.5152853 -0.3486051 -0.99824792 -0.059163745 -0.00088774355 0
-2.990422 -1.5577308 -0.34967184 -0.99638921 -0.084899373 -0.00080560124 0
2.560035 -1.5432433 -0.32125604 0.9973225 -0.039313126 0.061662726 0
2.61869 -1.5512817 -0.31196338 0.99128652 -0.042440481 0.12469961 0
3.0076959 -1.5464572 -0.34864819 0.99394667 0.012009049 -0.10920476 0
-3.0095768 -1.4488455 -0.34970942 -0.99991834 -0.012746536 -0.00085692154 0
-2.9964037 -1.4458702 -0.35280287 -0.99994886 -0.010096504 -0.00061716203 0
2.5584888 -1.4434285 -0.30956227 0.99612606 0.025021564 0.084302589 0
2.6131756 -1.4590495 -0.30525124 0.99238843 0.0087608108 0.12283517 0
3.0072746 -1.4445032 -0.34869409 0.99326634 0.0031780608 -0.11581068 0
-3.0052645 -1.3587738 -0.34695619 -0.99866521 0.051641729 -0.00095535215 0
-2.9906712 -1.3463092 -0.34691286 -0.99819571 0.060039375 -0.00075478153 0
2.5583992 -1.3483977 -0.31648934 0.99501151 0.076787688 0.063684791 0
2.6138945 -1.34905 -0.31017822 0.98881006 0.062138323 0.13562238 0
3.0075614 -1.345067 -0.35020614 0.99338663 -0.0054304916 -0.1146887 0
-2.9846127 -1.247328 -0.35231426 -0.99292082 0.11877473 -0.00093683827 0
2.5600748 -1.2473537 -0.33034095 0.99386877 0.075767547 0.08052396 0
2.6222689 -1.2498901 -0.31645766 0.9834789 0.065355644 0.16881341 0
3.0076022 -1.2468671 -0.3492668 0.99484068 -0.013390246 -0.10056199 0
-2.970576 -1.1504754 -0.34801763 -0.9846881 0.17432272 -0.00096209755 0
2.4315317 -1.123469 -0.3201828 0.99628711 0.082784347 0.023638267 0
2.5550933 -1.1476456 -0.34515786 0.99215966 0.076870225 0.098540291 0
2.6264551 -1.146723 -0.32763511 0.97914791 0.081325971 0.18615985 0
3.0075436 -1.1497731 -0.34823433 0.99674869 -0.016962944 -0.07876718 0
-2.9563024 -1.0484499 -0.35140395 -0.97070432 0.2402752 -0.00096396165 0
2.4383061 -1.0378014 -0.35121819 0.99669999 0.076376818 0.02748997 0
2.5534136 -1.0562072 -0.37890899 0.99206662 0.091563761 0.086138427 0
2.6344554 -1.0461961 -0.35090956 0.98582333 0.083858266 0.14532736 0
3.0070956 -1.0533035 -0.34786054 0.99880421 -0.014058882 -0.046823539 0
-2.9237013 -0.94873798 -0.34931532 -0.95024776 0.31149408 -0.00077175559 0
-2.8987479 -0.90358746 -0.35305482 -0.93998307 0.34122044 -0.00067572831 0
2.4364209 -0.95858651 -0.36047155 0.97838688 0.12385785 0.16558506 0
2.5907841 -0.993783 -0.3982482 0.98191738 0.11866418 0.14750314 0
2.648396 -0.95603567 -0.366965 0.99260467 0.072161406 0.097615451 0
3.0075593 -0.95445049 -0.34894165 0.99995977 0.0037180542 0.0081640678 0
-2.9058831 -0.88303149 -0.35532522 -0.9362157 0.35142517 -0.00068016374 0
-2.8784304 -0.84400916 -0.35079974 -0.92687225 0.37537596 -0.00079651689 0
2.4316058 -0.8483277 -0.35249403 0.87241149 0.24736391 0.42155576 0
2.659586 -0.85927683 -0.34913635 0.93929738 -0.1275627 -0.31850949 0
3.0072527 -0.85197872 -0.34820142 0.99493867 0.046005093 0.089334503 0
-2.8413036 -0.74962991 -0.3513777 -0.90379959 0.42795566 0.00040611799 0
2.4312954 -0.73246765 -0.34163013 0.77903998 0.35113308 0.51942492 0
2.6604819 -0.74919736 -0.3487055 0.7701304 -0.33522138 -0.54270226 0
3.0076158 -0.74835688 -0.3480702 0.97630382 0.11607908 0.18263757 0
-2.8107131 -0.67101341 -0.35030562 -0.8825084 0.47018066 0.010444486 0
-2.7832918 -0.62757713 -0.35180616 -0.87134266 0.48981512 0.029036248 0
2.4307637 -0.63579136 -0.34043184 0.6601795 0.44492608 0.60514778 0
2.6604528 -0.64205939 -0.35096657 0.59119427 -0.4810856 -0.64733768 0
3.0064564 -0.65306824 -0.34825772 0.94047505 0.19793209 0.27627814 0
-2.7334599 -0.5577209 -0.35141456 -0.86009908 0.50386304 0.079697281 0
-2.6927762 -0.51350683 -0.35249564 -0.85684806 0.50051421 0.12368039 0
2.302248 -0.50226152 -0.30485749 0.4062908 0.57682878 0.70865822 0
2.430084 -0.55026227 -0.34815592 0.45029104 0.55522001 0.69926304 0
2.6604326 -0.54978633 -0.34575412 0.30818632 -0.60664368 -0.73280597 0
2.9902766 -0.52427053 -0.31987202 0.77375644 0.39947641 0.49165002 0
3.0076172 -0.55814862 -0.35552719 0.88517624 0.29189202 0.36230126 0
-2.7012739 -0.4928115 -0.39666909 -0.87331706 0.44618753 0.1955353 0
-2.6511292 -0.45216104 -0.35150126 -0.85963863 0.47102585 0.19787854 0
2.1914477 -0.41487575 -0.31927818 0.257301 0.64768648 0.71714598 0
2.2550244 -0.4276548 -0.32254478 0.32995012 0.62942249 0.70353413 0
2.3494737 -0.43518046 -0.32728696 0.38828695 0.61200941 0.6889686 0
2.4224048 -0.45378885 -0.35112447 0.26997945 0.6353845 0.72346222 0
2.6763766 -0.44881505 -0.33859551 0.15408695 -0.66638339 -0.72951376 0
2.7491612 -0.43572772 -0.3310447 0.24712758 0.65023923 0.71841276 0
2.8509665 -0.43528748 -0.33155417 0.3183687 0.64011753 0.69920737 0
2.9579368 -0.44668403 -0.34459105 0.62742788 0.52259606 0.57725865 0
3.0084958 -0.47072604 -0.37757584 0.82527262 0.37873036 0.41891345 0
-2.60797 -0.37492892 -0.36287597 -0.86386716 0.38609913 0.32351345 0
-2.5737975 -0.34493536 -0.34528148 -0.85355848 0.38348421 0.35267222 0
-0.32349131 -0.31443357 -0.31427407 0.57105005 0.56968802 0.59106457 0
-0.25123182 -0.31679839 -0.31551355 0.45454594 0.62146723 0.63809592 0
-0.14567538 -0.31742153 -0.31540692 0.24703398 0.67652762 0.69374681 0
-0.043995347 -0.31793129 -0.31547409 0.062251497 0.69896811 0.71243829 0
0.049409132 -0.31761205 -0.31444806 -0.0014470543 0.70257181 0.71161139 0
0.14663608 -0.31790638 -0.31419882 -0.0022987886 0.70177984 0.71239012 0
0.25303286 -0.31720462 -0.31544334 -0.002241839 0.70225149 0.71192545 0
0.35256246 -0.31339416 -0.31846365 -0.0034148504 0.7032268 0.71095735 0
0.44860941 -0.31364927 -0.31822836 -0.0052647982 0.69926482 0.71484327 0
0.55427325 -0.3126238 -0.31862694 -0.0088123297 0.69455403 0.71938658 0
0.65626508 -0.31120884 -0.32091188 -0.0088529093 0.69360965 0.72029668 0
0.75657403 -0.31146604 -0.31778952 -0.0068429336 0.69434452 0.71961021 0
0.84806925 -0.31065217 -0.31686622 -0.0045872987 0.69752878 0.71654201 0
0.94730425 -0.31131881 -0.31699148 -0.0020455865 0.70128572 0.71287745 0
1.0512955 -0.31202289 -0.31678686 7.9440586e-05 0.70442927 0.70977426 0
1.1507744 -0.31228769 -0.31604624 -0.00049136713 0.70622438 0.7079879 0
1.2519385 -0.31298634 -0.31636378 -0.00070423406 0.70657134 0.70764148 0
1.3506899 -0.31239548 -0.31636414 -0.00083205727 0.70679998 0.70741308 0
1.448754 -0.31198886 -0.31641012 -0.00056541408 0.70698768 0.70722556 0
1.5506947 -0.31223178 -0.31589365 0.0030520486 0.70674455 0.70746219 0
1.6514261 -0.31285796 -0.31669447 0.013435455 0.70669055 0.70739514 0
1.7540665 -0.31445512 -0.31743154 0.027799143 0.70605266 0.70761353 0
1.851366 -0.31872207 -0.32052672 0.040951844 0.70526487 0.7077601 0
1.9480858 -0.32332376 -0.32065144 0.077081978 0.70243514 0.70756149 0
2.0509493 -0.3284204 -0.32469487 0.14750417 0.69706655 0.70167005 0
2.1618078 -0.33700043 -0.33530822 0.21106914 0.68968445 0.69266522 0
2.2496536 -0.36733758 -0.36863264 0.31818581 0.66845196 0.67225718 0
2.3562956 -0.37076592 -0.37087062 0.39054006 0.64692575 0.65495461 0
2.4117131 -0.38041431 -0.3853215 0.27497426 0.67367244 0.68596977 0
2.6829238 -0.37796488 -0.37789631 0.13425839 -0.71035331 -0.69092172 0
2.7512188 -0.37602553 -0.37742108 0.2526488 0.6888541 0.67944729 0
2.8532212 -0.37662241 -0.37661576 0.30578628 0.67803603 0.66840255 0
2.9423852 -0.37922338 -0.3824603 0.53907007 0.59757239 0.59355766 0
-2.6045806 -0.25111201 -0.39107025 -0.83490592 0.18813178 0.5172413 0
-2.5615859 -0.25212592 -0.34679583 -0.83000529 0.26354191 0.49156576 0
-0.31931275 -0.24992178 -0.33031088 0.60531855 0.45941487 0.65002108 0
-0.25955686 -0.26532692 -0.3636651 0.4939833 0.52670205 0.69178426 0
-0.15371153 -0.27808836 -0.36147416 0.27978724 0.63854194 0.71692628 0
-0.049756415 -0.27849451 -0.36211169 0.095076814 0.69846946 0.70929599 0
0.050499663 -0.28003621 -0.35990271 0.0041502854 0.73039317 0.68301445 0
0.14633128 -0.27809373 -0.3610675 -0.001547956 0.73349661 0.67969137 0
0.25006163 -0.27738482 -0.36195764 -0.0024584527 0.73247433 0.68079031 0
0.35350916 -0.27682927 -0.36196721 -0.0048381109 0.72848487 0.68504483 0
0.45116299 -0.2774381 -0.36119777 -0.0065270159 0.72351617 0.69027656 0
0.54632336 -0.27654013 -0.36311159 -0.0091373175 0.72029734 0.6936053 0
0.64956188 -0.27683142 -0.36383092 -0.0089538535 0.71842623 0.69554543 0
0.75756574 -0.27584523 -0.36254773 -0.0065569291 0.72006476 0.69387579 0
0.84880441 -0.27273548 -0.36403999 -0.0039085909 0.72489619 0.68884706 0
0.94956458 -0.27396914 -0.36286533 -0.0008714188 0.72834796 0.68520695 0
1.0510849 -0.27470511 -0.36074424 0.0014538381 0.73100847 0.68236685 0
1.151183 -0.27428222 -0.36135519 0.00097978313 0.7340886 0.67905301 0
1.2475871 -0.27307105 -0.36255941 -0.00035313377 0.7366243 0.67630208 0
1.3499774 -0.27315065 -0.36293602 -0.00071143068 0.73714644 0.67573261 0
1.4503952 -0.27480197 -0.36074018 -0.00048329594 0.73594415 0.67704207 0
1.5500616 -0.2755959 -0.35950911 0.0030185338 0.7353037 0.67773104 0
1.6496817 -0.27650529 -0.35903528 0.013135226 0.73474008 0.67822158 0
1.7499443 -0.27430755 -0.36316663 0.027161269 0.73661649 0.6757651 0
1.848338 -0.27488029 -0.36954537 0.040309131 0.73808461 0.67350292 0
1.9458193 -0.27728677 -0.37519526 0.076261938 0.7380985 0.67036909 0
2.0468566 -0.28385133 -0.37401208 0.14544141 0.72999918 0.66779345 0
2.1465909 -0.2862826 -0.38070971 0.19702969 0.72468209 0.6603145 0
-2.6042795 -0.14558572 -0.38759518 -0.79041845 0.077368379 0.60766184 0
-2.5592573 -0.14910881 -0.34380412 -0.78549373 0.13969353 0.60289752 0
-0.32045367 -0.1526155 -0.32836866 0.66835415 0.26504594 0.69502032 0
-0.28075829 -0.15378417 -0.3730334 0.634911 0.28908089 0.71646374 0
-2.6061938 -0.037924699 -0.39253172 -0.75900406 0.0056416271 0.65106153 0
-2.5620739 -0.045865614 -0.34763682 -0.74201024 0.034401331 0.66950524 0
-2.497931 -0.07140696 -0.30112833 -0.73280114 0.10937074 0.67159551 0
-0.31908146 -0.0506736 -0.32911026 0.700616 0.079213232 0.70912796 0
-0.28010046 -0.050801229 -0.37198123 0.70147794 0.10376085 0.7050975 0
-2.6032262 0.055683672 -0.38731319 -0.75395191 -0.0005755084 0.65692931 0
-2.5587602 0.052372206 -0.34438145 -0.7246086 -6.3199812e-05 0.6891607 0
-0.32139608 0.052220587 -0.32768789 0.71233296 0.0018743068 0.70183921 0
-0.28120685 0.052126776 -0.37244096 0.73815244 0.01260065 0.67451626 0
-2.6061239 0.15757422 -0.39242646 -0.75617415 -5.7027977e-05 0.65437037 0
-2.5602632 0.15197761 -0.34589699 -0.72550261 -0.00047323474 0.68821913 0
-0.31964153 0.15157583 -0.32756341 0.71246469 0.0048020072 0.70169145 0
-0.28173319 0.15177995 -0.37114444 0.74098349 0.0064218729 0.67149258 0
0.47535479 0.1957681 -0.35274875 0.31773737 0.94811672 0.010847532 0
0.546718 0.17665821 -0.34898746 0.21076919 0.97742116 0.014975687 0
0.65634769 0.15597138 -0.34609118 0.035793439 0.99914378 0.020749809 0
0.75472933 0.17635246 -0.34733605 -0.13302737 0.99088639 0.021163406 0
0.82046843 0.19428378 -0.35219285 -0.25495207 0.96687108 0.01264081 0
-2.6031597 0.25039107 -0.38724822 -0.75378317 0.00033855985 0.65712309 0
-2.5595338 0.25084862 -0.34495944 -0.72481835 6.0273931e-05 0.68894005 0
-0.32045937 0.24098469 -0.32821468 0.71083325 0.0091502974 0.70330101 0
-0.28019452 0.2432332 -0.36972684 0.73980075 0.0096617751 0.67275655 0
0.34293249 0.26692289 -0.34873462 0.53990376 0.84172672 -0.0001348604 0
0.42677796 0.20877978 -0.35416976 0.3831012 0.92367387 0.0077431262 0
0.86384439 0.20573485 -0.3580409 -0.33631656 0.94167757 0.011591705 0
0.95529872 0.2515263 -0.34847072 0.60454655 -0.79656535 -0.0026622405 0
1.010828 0.29309145 -0.3475976 0.66051984 -0.75080824 0.00073789922 0
-2.6060607 0.35193932 -0.39231977 -0.75541216 0.00039255715 0.65524966 0
-2.5601089 0.3485992 -0.34577602 -0.72488141 0.00028586065 0.68887359 0
-0.32919589 0.35075292 -0.32396531 0.70383674 0.013148501 0.71024001 0
-0.28257209 0.3537156 -0.36797237 0.73588437 0.011218972 0.67701435 0
0.25275788 0.36301428 -0.34870827 0.75703073 0.65324134 -0.013422444 0
0.30193272 0.3138862 -0.34625909 0.63925862 0.76893866 -0.009037938 0
0.49716741 0.3998597 -0.39777189 -0.071461126 0.9935807 -0.087697119 0
0.55099332 0.3854306 -0.35087374 -0.072606683 0.98681784 -0.14463326 0
0.65385783 0.36571485 -0.34776178 -0.033258315 0.99931788 -0.016056033 0
0.75101537 0.38553527 -0.34751016 0.0090663992 0.99976259 -0.019814279 0
0.80280662 0.39940161 -0.32218581 -0.065093942 0.99287343 -0.099825218 0
1.0564077 0.35090926 -0.35015276 0.76328433 -0.64604849 0.004284855 0
1.1127002 0.39497581 -0.34801912 0.84366298 -0.53684849 0.005151609 0
-2.6029837 0.4485068 -0.38832396 -0.75237215 2.200314e-05 0.65873826 0
-2.5601602 0.4487398 -0.34557956 -0.72402608 0.00027004778 0.68977249 0
-0.32802153 0.44833946 -0.32412082 0.70378393 0.011690537 0.71031797 0
-0.28074512 0.45518547 -0.37479717 0.73798764 0.0077492571 0.6747697 0
0.18992431 0.46131432 -0.34855556 0.89430445 0.44539693 -0.042907778 0
0.20593344 0.40976703 -0.35102341 0.84414738 0.53589451 -0.015240096 0
0.45490837 0.43938559 -0.34427232 0.1877002 0.91396767 -0.35976624 0
0.84980714 0.44239834 -0.35150215 -0.23741904 0.95656115 -0.16918333 0
0.906905 0.4993012 -0.32931599 0.53952444 -0.78872365 0.29466665 0
1.1312221 0.45173457 -0.35075092 0.89557749 -0.44478852 0.010204197 0
-2.607264 0.54618084 -0.39283523 -0.75485289 -0.00024498749 0.65589398 0
-2.5595036 0.54754966 -0.34502655 -0.72302443 -1.5803198e-05 0.69082242 0
-2.4986744 0.5355953 -0.30065912 -0.68513918 0.00035881886 0.72841209 0
-0.32817322 0.54866135 -0.32429737 0.70414257 0.0044368799 0.71004474 0
-0.28015128 0.55441064 -0.3764286 0.73799551 0.00011382606 0.6748057 0
0.16718613 0.54628807 -0.34980273 0.96147728 0.26625457 -0.068336613 0
0.92864168 0.54156816 -0.35440886 0.66805589 -0.66871327 0.32638007 0
1.1570709 0.54745638 -0.34999821 0.96709508 -0.25389454 0.016270766 0
-2.6035707 0.64657754 -0.38962433 -0.75248206 -0.0002329554 0.65861267 0
-2.5594692 0.64978516 -0.34456894 -0.7223627 -0.00018329009 0.69151437 0
-0.32817358 0.65023202 -0.32434028 0.70354664 0.00037532314 0.71064907 0
-0.27895865 0.6526553 -0.3771483 0.73815942 -0.0013315207 0.67462504 0
0.14111154 0.64837307 -0.34761646 0.99739343 0.035852019 -0.062617332 0
0.95179045 0.62038577 -0.31406736 0.80334455 -0.29080248 0.51968408 0
1.1822599 0.64675665 -0.35059172 0.99884892 -0.045995787 0.013605539 0
-2.6064525 0.75542825 -0.39050284 -0.75401109 -0.00017809143 0.6568616 0
-2.5603719 0.75201291 -0.34557176 -0.72308511 -0.00030329666 0.69075894 0
-0.3281782 0.75066173 -0.32437643 0.70329666 -0.0011110589 0.71089554 0
-0.2793934 0.74951667 -0.37742749 0.7382288 -0.0010631294 0.67454952 0
0.14994411 0.74465698 -0.34993893 0.98431468 -0.16320868 -0.066989176 0
1.1690773 0.75058472 -0.35085773 0.98619688 0.16462284 0.01774835 0
-2.60518 0.8550517 -0.38992438 -0.75343448 -0.00017678208 0.65752304 0
-2.5597157 0.85195595 -0.34533957 -0.7228108 -0.00031811564 0.69104594 0
-0.32706076 0.85218698 -0.32473993 0.70392144 -0.0022875241 0.71027416 0
-0.28258315 0.84909868 -0.37473384 0.73612726 -0.00087553472 0.67684257 0
0.17933166 0.85441965 -0.35094446 0.94407815 -0.32130215 -0.074036084 0
0.43079597 0.88616002 -0.31792679 -0.49801308 0.73434132 0.46122217 0
0.87709582 0.87663275 -0.34396246 0.51889139 0.78823179 0.3308208 0
0.91125417 0.8425135 -0.35187757 0.66333306 0.67137235 0.33052734 0
1.1423246 0.85044861 -0.34873122 0.92700195 0.37460393 0.018418862 0
-2.6051021 0.95438403 -0.38875636 -0.75318408 -8.2972918e-05 0.65780985 0
-2.559993 0.9523657 -0.34520844 -0.72293228 -0.0001814986 0.69091886 0
-0.32811528 0.95257938 -0.32462451 0.70417535 -0.0047622458 0.71001011 0
-0.28334537 0.94883174 -0.37458041 0.73635536 -0.0017927398 0.67659259 0
0.19676448 0.91793185 -0.33699784 -0.86273909 0.50222182 0.058776446 0
0.2361211 0.96428698 -0.34771693 -0.791484 0.60885203 0.053407025 0
0.47781825 0.93206811 -0.3524878 -0.33855534 0.87901151 0.33573654 0
0.55457002 0.96396512 -0.34772021 -0.14275748 0.95283991 0.26779929 0
0.65108114 0.98311669 -0.35615656 0.057871252 0.98546821 0.15969764 0
0.74716812 0.96300924 -0.35008422 0.15247115 0.97119355 0.18312737 0
0.82413387 0.92885315 -0.35330513 0.30178997 0.92697811 0.22278777 0
1.0756963 0.97618026 -0.34778577 0.79594344 0.60517472 0.01541499 0
1.1194053 0.92978632 -0.34824777 0.86060017 0.50911939 0.012836222 0
-2.6062036 1.0534763 -0.39124757 -0.75402385 -8.2720013e-05 0.65684706 0
-2.5611622 1.0516672 -0.34652478 -0.723997 -0.00017784095 0.68980312 0
-0.32457072 1.0534712 -0.32746255 0.70690507 -0.0097246468 0.70724154 0
-0.27955234 1.0443119 -0.37589246 0.73889971 -0.0061852424 0.67378694 0
0.28079313 1.0145661 -0.35708961 -0.69587916 0.71699059 0.040947795 0
0.33492494 1.0613905 -0.34921542 -0.58935499 0.80714363 0.034349315 0
0.97490537 1.0767591 -0.34862468 0.5903073 0.80711228 0.010345635 0
1.0278099 1.0272772 -0.34660974 0.70216542 0.71188009 0.013801283 0
-2.6037629 1.1515565 -0.38705435 -0.7520529 -0.00022035973 0.65910274 0
-2.5588541 1.1504025 -0.3447192 -0.72249472 -0.00018117379 0.69137639 0
-0.32597408 1.149228 -0.32800177 0.70625508 -0.015522862 0.70778728 0
-0.28070018 1.1477613 -0.37019059 0.73631966 -0.014955204 0.67646849 0
0.38520628 1.1169753 -0.35199973 -0.48872715 0.87227488 0.016802972 0
0.44992617 1.1397537 -0.35440111 -0.38451919 0.92299712 0.014877997 0
0.5489189 1.166478 -0.34923601 -0.20372489 0.97899979 0.0074534933 0
0.64702201 1.1895798 -0.34662789 -0.027223576 0.99962699 0.0021689904 0
0.75080979 1.1738441 -0.34690386 0.16824818 0.98574209 0.0022434043 0
0.85503519 1.1458977 -0.34731644 0.37112293 0.92857903 0.0029659565 0
0.93070096 1.1209261 -0.34609944 0.50003463 0.86599368 0.0044984296 0
-2.6071982 1.2504117 -0.39256176 -0.75479299 -0.000156833 0.65596306 0
-2.5596035 1.2504146 -0.34516215 -0.72293192 -7.4285766e-05 0.69091922 0
-0.32557279 1.2513925 -0.32914728 0.70758033 -0.017112305 0.70642567 0
-0.27935395 1.2473645 -0.37152967 0.73816681 -0.01846463 0.67436558 0
-2.6044281 1.3475838 -0.38792184 -0.75277293 -0.00013560211 0.65828037 0
-2.5593565 1.3485774 -0.34417313 -0.72255749 -0.00013444446 0.69131088 0
-0.32149976 1.3487966 -0.32689893 0.70967573 -0.01514567 0.70436567 0
-0.27848276 1.3544911 -0.36993694 0.73943651 -0.017126365 0.6730085 0
-2.6060185 1.4452515 -0.39103708 -0.75413549 -8.7656277e-05 0.65671885 0
-2.5586603 1.4466871 -0.34359023 -0.72209519 -9.0975853e-05 0.69179368 0
-0.32156545 1.4494171 -0.32649946 0.71042067 -0.010595769 0.70369744 0
-0.27581671 1.4491143 -0.36949438 0.74079478 -0.012349171 0.67161798 0
-2.6047308 1.5466565 -0.38904777 -0.75293607 0.0025611056 0.65808874 0
-2.560987 1.5486058 -0.34581339 -0.72356337 0.0027137741 0.69025266 0
-0.32108122 1.5504923 -0.32725292 0.71091688 -0.0018970791 0.70327342 0
-0.27560771 1.5512992 -0.36935312 0.74112618 -0.0026524581 0.67136055 0
-2.6047883 1.6520385 -0.38841832 -0.75249791 0.012240906 0.65848082 0
-2.5586214 1.6508553 -0.34384894 -0.72171158 0.012163891 0.69208699 0
-0.32167843 1.6483115 -0.32682893 0.71031016 0.011272266 0.70379853 0
-0.27498633 1.6484996 -0.3701748 0.74138373 0.011196367 0.67098796 0
-2.6069772 1.7490028 -0.39125428 -0.75352591 0.025751602 0.6569137 0
-2.5600052 1.7514696 -0.34581372 -0.7224052 0.026126003 0.6909762 0
-0.32265863 1.747573 -0.32521963 0.7092061 0.025543213 0.70453835 0
-0.27850428 1.7510822 -0.36720628 0.73919964 0.026016222 0.67298377 0
-2.6061893 1.8486494 -0.38838387 -0.7516197 0.039426725 0.65841734 0
-2.5564601 1.8516519 -0.34909767 -0.72202146 0.039921656 0.69071788 0
-0.32428339 1.8509567 -0.32860309 0.70930988 0.039998133 0.70376104 0
-0.28120029 1.8517544 -0.37206361 0.73943245 0.039993908 0.67204189 0
-2.5534768 1.9513355 -0.35214132 -0.7203216 0.07341665 0.68974394 0
-2.4981625 1.9598221 -0.30959472 -0.68394637 0.080248356 0.72510517 0
-0.33044627 1.9527231 -0.32955623 0.70572251 0.072830781 0.70473498 0
-0.28523695 1.9490128 -0.37714636 0.73848295 0.070290133 0.67059845 0
-2.5468364 2.0517709 -0.35125235 -0.71196461 0.14004581 0.68810868 0
-2.4936006 2.0480752 -0.3081198 -0.67704785 0.13850166 0.72278875 0
-0.33282956 2.0492506 -0.33584678 0.70174956 0.13939197 0.69865406 0
-0.28437018 2.0518246 -0.37948105 0.73370188 0.1405752 0.66477072 0
-2.5425918 2.1568859 -0.3571434 -0.70540714 0.19754015 0.68071926 0
-2.4699376 2.18031 -0.32621804 -0.66484916 0.22407593 0.71257663 0
-2.394026 2.1999657 -0.30695045 -0.62749839 0.24994582 0.73740965 0
-0.33701277 2.149163 -0.33940944 0.69540793 0.19207785 0.69246948 0
-0.2863858 2.1472056 -0.38584217 0.72920221 0.19083616 0.65714973 0
-2.5200126 2.2375681 -0.38177815 -0.69351715 0.27689224 0.66510499 0
-2.4513142 2.2522397 -0.34060863 -0.65194571 0.29474881 0.69863427 0
-2.3883512 2.263761 -0.30405962 -0.61497533 0.30871841 0.72560203 0
-0.43639985 2.2467649 -0.32595107 0.63689405 0.30466905 0.70819682 0
-0.36474058 2.2369797 -0.36612841 0.67922676 0.28740203 0.67531562 0
-0.29229972 2.2019243 -0.39108005 0.72272342 0.23130922 0.65128094 0
-2.5098474 2.3753257 -0.38934672 -0.66845143 0.38403973 0.63693488 0
-2.4502335 2.3528652 -0.35201749 -0.63682628 0.37679648 0.67266387 0
-2.3838866 2.3361378 -0.31175289 -0.60036051 0.37759143 0.70497656 0
-0.51993805 2.3222857 -0.30829632 0.57861638 0.4134286 0.70305043 0
-0.44199619 2.3455095 -0.33328888 0.61502188 0.40383208 0.67725015 0
-0.37531465 2.3596721 -0.37532228 0.64934182 0.40882105 0.6412648 0
-2.4398444 2.4201367 -0.36542737 -0.66728699 0.25546932 0.69961673 0
-2.3568332 2.4335983 -0.34082395 -0.62544727 0.2707682 0.7317788 0
-2.2635469 2.4412282 -0.32667926 -0.54719377 0.41293168 0.72805655 0
-2.1527741 2.4425147 -0.33305284 -0.37838688 0.69910413 0.60669327 0
-2.0492249 2.4425335 -0.33107951 -0.24462613 0.80904675 0.53441691 0
-1.945539 2.4425519 -0.33294341 -0.15244645 0.89487827 0.41946754 0
-1.8399444 2.4583127 -0.36194888 -0.040073063 0.99209553 0.11891459 0
-1.7464958 2.4640071 -0.34508952 -0.0096851699 0.9989742 0.044235315 0
-1.6481843 2.4636722 -0.33063146 0.012010558 0.99955815 0.027189525 0
-1.5453047 2.4640992 -0.31974259 0.012031169 0.99955589 0.027263554 0
-1.4453406 2.4665487 -0.3125377 0.005530885 0.99971569 0.023195107 0
-1.3468102 2.4639907 -0.320061 -0.00078729802 0.9989292 0.046258055 0
-1.2457001 2.463665 -0.33065277 0.011202832 0.99834394 0.056424763 0
-1.1496481 2.4641814 -0.34457666 0.019031141 0.9983412 0.05433758 0
-1.0588273 2.4567382 -0.36053762 0.029439019 0.9942646 0.10281619 0
-0.95078963 2.4427552 -0.33235064 0.13576348 0.91856271 0.37122864 0
-0.85132056 2.4427812 -0.33227494 0.21945159 0.85201192 0.47530696 0
-0.75185341 2.4428041 -0.33220759 0.32624301 0.78466272 0.52713358 0
-0.6429401 2.4419012 -0.32601917 0.46828189 0.60488886 0.64406645 0
-0.54858452 2.4399679 -0.33969659 0.59336227 0.37848896 0.71039951 0
-0.45295542 2.4268146 -0.3518424 0.64976746 0.28804144 0.70344466 0
-0.3806749 2.4145794 -0.38491398 0.67938763 0.31552219 0.66247886 0
-1.8267558 2.5367553 -0.38797453 0.0016524825 0.99883163 0.048298102 0
-1.7522657 2.5501163 -0.36225718 -0.00790348 0.99825746 0.058476958 0
-1.6471239 2.5437253 -0.34031129 0.012994518 0.99821454 0.058299735 0
-1.54766 2.5439436 -0.32592741 0.014406193 0.99847692 0.053257197 0
-1.446426 2.5408869 -0.31543308 0.0042717578 0.99949807 0.031391714 0
-1.3434591 2.5385442 -0.32293728 0.0033377544 0.99814487 0.06079172 0
-1.2479811 2.5398879 -0.33260319 0.011717208 0.99699503 0.07657408 0
-1.1427329 2.5479486 -0.3501687 0.0016444874 0.99800509 0.063111857 0
-1.0570513 2.5456393 -0.38144338 -0.010080081 0.99728858 0.072896652 0
-2.501986 2.685379 -0.39135921 -0.7113921 -0.11066334 0.69402808 0
-2.4409924 2.6870308 -0.36598444 -0.67309195 -0.1343984 0.72724438 0
-2.3533912 2.6848667 -0.34529051 -0.63676363 -0.13272318 0.75955027 0
-2.2494574 2.6839395 -0.34882608 0.44606274 0.68590087 -0.5749504 0
-2.1503623 2.6840703 -0.35354191 0.39128321 0.74525368 -0.53990221 0
-2.052062 2.6840537 -0.33994514 0.28580678 0.82509643 -0.48737073 0
-1.9484746 2.6809785 -0.35877928 0.14778939 0.964266 -0.21988487 0
-1.8428389 2.6622748 -0.36084667 0.007379781 0.99699211 0.077151693 0
-1.7542913 2.6467013 -0.34491706 -0.032476526 0.98619688 0.16236036 0
-1.6541986 2.6380475 -0.33005956 -0.017510951 0.98130232 0.19167458 0
-1.551445 2.6339931 -0.32122749 -0.0049237334 0.97960949 0.20085099 0
-1.4531972 2.6340976 -0.31595665 0.0047055259 0.98104757 0.19370952 0
-1.3435549 2.6349366 -0.31668594 0.020107662 0.97894198 0.20314577 0
-1.2502317 2.6359522 -0.3241294 0.038753457 0.9804734 0.19279554 0
-1.1500071 2.6478462 -0.32960364 0.011944226 0.98774588 0.15561324 0
-1.0482836 2.651485 -0.35386685 -0.0075405715 0.99584651 0.090735726 0
-0.95907807 2.6703808 -0.36088651 -0.087565936 0.99080342 -0.10315406 0
-0.85653216 2.6841643 -0.3493894 -0.22767892 0.87039721 -0.43654445 0
-0.75398368 2.6848269 -0.34981158 -0.34130704 0.76117384 -0.55147427 0
-0.64985299 2.6848242 -0.35139477 -0.46376181 0.57650232 -0.67273337 0
-0.54540598 2.6848385 -0.34846827 -0.58100682 0.29185525 -0.75977069 0
-0.44456613 2.6878872 -0.35564399 -0.65381438 0.14435148 -0.74275798 0
-0.3812694 2.6918259 -0.38161537 -0.69216764 0.11957801 -0.71176195 0
-2.5076749 2.799515 -0.39883211 -0.71263272 0.092715822 0.69538361 0
-2.4480803 2.7504814 -0.35902783 -0.67879748 -0.067126386 0.731251 0
-2.3852055 2.7475159 -0.31598166 -0.64056194 -0.07173872 0.76454818 0
-0.44338071 2.7493081 -0.33777562 0.29373607 0.91313148 0.28268358 0
-0.38296357 2.7502408 -0.38010648 0.31080869 0.90291297 0.2968941 0
-2.5029507 2.8343804 -0.39269328 -0.70016778 0.20102562 0.685094 0
-2.4452841 2.851661 -0.3570908 -0.65745753 0.26531571 0.70523554 0
-2.383775 2.8448572 -0.313447 -0.62207741 0.25891316 0.73890698 0
-0.50021952 2.8991871 -0.3032172 0.57011253 0.44325316 0.69173574 0
-0.44656098 2.8511641 -0.33613884 0.63182062 0.30009332 0.71466553 0
-0.38394025 2.8496616 -0.37958267 0.67227703 0.28099069 0.68489999 0
-2.4438698 2.9484727 -0.36494139 -0.57971841 0.53757828 0.6123203 0
-2.3740633 2.9676478 -0.32449096 -0.49964383 0.63666654 0.58737701 0
-0.51617599 2.9794734 -0.31135789 0.45272058 0.69963086 0.55277538 0
-0.44862929 2.9549098 -0.34574604 0.54271799 0.58780336 0.59995377 0
-0.38626352 2.937561 -0.38255188 0.60897285 0.50467068 0.61193109 0
-2.4195602 3.003721 -0.38327754 -0.44311345 0.76359767 0.46964785 0
-2.3417976 3.0075047 -0.36217651 -0.35063964 0.84082323 0.41239315 0
-2.2519128 3.0104067 -0.35173076 -0.24553291 0.91330016 0.32495603 0
-2.151206 3.0106528 -0.35154945 -0.1477478 0.96390253 0.22150069 0
-2.0474169 3.0107222 -0.35102689 -0.070711985 0.98932618 0.12741049 0
-1.9464955 3.0107267 -0.35372713 -0.016714873 0.99899626 0.041558992 0
-1.8496003 3.0107358 -0.35337129 0.0081086354 0.99973923 -0.021350246 0
-1.7481867 3.0107625 -0.35272157 0.019799996 0.99743372 -0.068803921 0
-1.64729 3.0108202 -0.35467601 0.02035965 0.99455994 -0.1021576 0
-1.5480957 3.0108745 -0.35337883 0.011972161 0.99297214 -0.11774095 0
-1.4506642 3.0108829 -0.35339481 0.0017321052 0.99220532 -0.12460188 0
-1.3481729 3.010859 -0.35242331 -0.0076543353 0.99271405 -0.12025058 0
-1.2494955 3.0109899 -0.35251123 -0.016289625 0.99418205 -0.10647361 0
-1.1508155 3.0109038 -0.35205209 -0.019617142 0.99662942 -0.079655573 0
-1.0491556 3.0109973 -0.35034081 -0.011711679 0.99926054 -0.036622413 0
-0.94760162 3.0109425 -0.353459 0.0091826264 0.99976552 0.019612746 0
-0.84854299 3.0111012 -0.35614705 0.04851773 0.99483609 0.089147076 0
-0.75250733 3.0110509 -0.35378832 0.11507713 0.97762007 0.17611426 0
-0.65463984 3.0110519 -0.35208657 0.19727241 0.94180691 0.27218255 0
-0.55755794 3.0092592 -0.3546693 0.30500466 0.87532407 0.3752065 0
-0.47498357 3.0052183 -0.3768172 0.39871407 0.80610979 0.43728042 0
-1.4344296 -3.0020311 -0.24821264 -0.00095499202 -0.99999958 -7.3437339e-05 0
-1.9318254 -2.9136255 -0.24984726 -0.322979 -0.94640613 -0.00030447415 0
-1.8532794 -2.9434259 -0.25000021 -0.26757383 -0.96353734 -0.00020178696 0
-1.7501695 -2.9623928 -0.25054073 -0.19691004 -0.98042154 -0.00020601499 0
-1.645658 -2.9759696 -0.24998255 -0.13501589 -0.99084342 -0.00023502621 0
-1.5440094 -2.9893832 -0.2494203 -0.076082692 -0.99710149 -0.00012869202 0
-1.4667929 -2.997339 -0.24594529 -0.024754237 -0.99969351 -0.00010025712 0
-1.3479609 -2.9926593 -0.25047415 0.059916109 -0.99820346 4.4143791e-05 0
-1.2476524 -2.9794085 -0.2505511 0.1197736 -0.99280125 0.00011693055 0
-1.1489004 -2.9663405 -0.25126752 0.17650102 -0.98430037 0.00022382342 0
-1.0498133 -2.9521344 -0.25193465 0.24113104 -0.97049254 0.00026942996 0
-0.95155436 -2.9202044 -0.25275615 0.31166434 -0.95019227 0.00027517285 0
-2.2088451 -2.8008065 -0.24672422 -0.49024734 -0.87158328 -0.00040733203 0
-2.1476982 -2.8235507 -0.24973474 -0.45159405 -0.89222336 -0.00045901511 0
-2.0476799 -2.8650448 -0.24959992 -0.39201471 -0.91995883 -0.00036004756 0
-1.9782289 -2.8917925 -0.2530587 -0.35193411 -0.93602467 -0.00033398214 0
-0.91325384 -2.8961406 -0.24915999 0.33783573 -0.94120508 0.0001647454 0
-0.84929031 -2.8771992 -0.2542648 0.37388039 -0.92747688 0.00034291021 0
-0.74913108 -2.8358569 -0.25095949 0.43092552 -0.90238738 0.00037798769 0
-0.682298 -2.8091214 -0.24966626 0.47221935 -0.88148105 0.00036592211 0
-2.3226924 -2.7169323 -0.25196093 -0.57174885 -0.82042849 -0.00060134212 0
-2.2572248 -2.7652245 -0.25037095 -0.52740657 -0.84961283 -0.00049582624 0
-2.1904001 -2.7975266 -0.24412154 -0.48161522 -0.87638259 -0.00050271861 0
-0.63125962 -2.7804861 -0.24937324 0.50828147 -0.86118871 0.0019937775 0
-0.56257844 -2.7305617 -0.24934588 0.54641908 -0.83729804 0.018922493 0
-2.4366121 -2.6291516 -0.24710506 -0.6377694 -0.77022719 -0.00051620882 0
-2.3694375 -2.6782932 -0.2476705 -0.5995118 -0.80036575 -0.00052349822 0
-0.51462311 -2.6904159 -0.25089362 0.55705321 -0.8291263 0.047342576 0
-0.45012715 -2.6429768 -0.25276646 0.54628378 -0.83034694 0.10999072 0
-2.5432849 -2.5429595 -0.24849522 -0.7054978 -0.7087118 -0.00057074497 0
-2.4851642 -2.5882304 -0.24799281 -0.66733855 -0.74475431 -0.00052112527 0
-0.40673313 -2.5976384 -0.25841355 0.52630067 -0.83300889 0.1705983 0
